1351019.75809985,7223876.20202859,37.9437000458,101,3611938.10101,-2.76859672573e-07
1351019.75809985,7223876.30207116,37.9176000458,101,7899155.81343,-1.2659580639e-07
1351019.85817654,7223876.20202859,37.9807000458,101,7899155.90168,-1.26595804975e-07
1351019.85817654,7223876.30207116,37.9136000458,101,7899155.8556,-1.26595805714e-07
1351019.95825323,7223876.20202859,37.9576000458,101,9249715.18178,-1.08111436985e-07
1351019.85817654,7223876.40211373,37.8826000458,101,9249715.27074,-1.08111435945e-07
1351019.95825323,7223876.30207116,37.9806000458,101,7899156.01213,-1.26595803205e-07
1351019.95825323,7223876.40211373,37.9106000458,101,7899156.0904,-1.26595801951e-07
1351020.05832991,7223876.30207116,37.9426000458,101,9249715.67292,-1.08111431244e-07
1351019.95825323,7223876.5021563,37.8886000458,101,9249715.70575,-1.0811143086e-07
1351020.05832991,7223876.40211373,37.9856000458,101,9249715.78102,-1.08111429981e-07
1351019.95825323,7223876.60219887,37.8846000458,101,9249715.83961,-1.08111429296e-07
1351020.05832991,7223876.5021563,37.9136000458,101,8574435.99442,-1.16625746656e-07
1351020.1584066,7223876.40211373,37.9806000458,101,9249715.68467,-1.08111431107e-07
1351020.05832991,7223876.60219887,37.9126000458,101,9249715.75126,-1.08111430328e-07
1351020.1584066,7223876.5021563,37.9856000458,101,7899156.33259,-1.2659579807e-07
1351020.1584066,7223876.60219887,37.9636000458,101,3611938.3011,-2.76859657236e-07
1351020.1584066,7223876.70224144,37.9367000458,101,7899156.41741,-1.2659579671e-07
1351020.25848329,7223876.60219887,37.9706000458,101,7899156.46766,-1.26595795905e-07
1351020.25848329,7223876.70224144,37.9377000458,101,3611938.35112,-2.76859653402e-07
1351020.25848329,7223876.80228401,37.8896000458,101,7899156.65168,-1.26595792956e-07
1351020.35855997,7223876.70224144,37.9626000458,101,9249716.48883,-1.08111421708e-07
1351020.25848329,7223876.90232658,37.8706000458,101,9249716.57134,-1.08111420743e-07
1351020.35855997,7223876.80228401,37.9606000458,101,7899156.77775,-1.26595790935e-07
1351020.35855997,7223876.90232658,37.9066000458,101,7899156.73627,-1.265957916e-07
1351020.45863666,7223876.80228401,37.9666000458,101,9249716.65259,-1.08111419794e-07
1351020.35855997,7223877.00236916,37.9056000458,101,9249716.76191,-1.08111418516e-07
1351020.45863666,7223876.90232658,37.9777000458,101,7899156.91307,-1.26595788766e-07
1351020.45863666,7223877.00236916,37.9257000458,101,3611938.50118,-2.76859641899e-07
1351020.45863666,7223877.10241173,37.9546000458,101,7899157.00153,-1.26595787349e-07
1351020.55871335,7223877.00236916,37.9816000458,101,7899157.03779,-1.26595786768e-07
1351020.55871335,7223877.10241173,37.9476000458,101,3611938.55121,-2.76859638065e-07
1351020.55871335,7223877.2024543,37.8477000458,101,7899157.10373,-1.26595785711e-07
1351020.65879004,7223877.10241173,37.9696000458,101,9249717.16609,-1.08111413792e-07
1351020.55871335,7223877.30249687,37.8267000458,101,9249717.21486,-1.08111413222e-07
1351020.65879004,7223877.2024543,37.8577000458,101,9249717.26729,-1.08111412609e-07
1351020.55871335,7223877.40253944,37.8086000458,101,9249717.33783,-1.08111411784e-07
1351020.65879004,7223877.30249687,37.8396000458,101,8574437.41886,-1.16625727281e-07
1351020.75886672,7223877.2024543,37.8806000458,101,9249717.64724,-1.08111408168e-07
1351020.65879004,7223877.40253944,37.8097000458,101,9249717.68621,-1.08111407713e-07
1351020.75886672,7223877.30249687,37.9017000458,101,8574437.51288,-1.16625726002e-07
1351020.85894341,7223877.2024543,37.8746000458,101,9249717.52905,-1.0811140955e-07
1351020.75886672,7223877.40253944,37.8107000458,101,10600277.8186,-9.4337150131e-08
1351020.75886672,7223877.50258201,37.8016000458,101,7899157.53252,-1.26595778839e-07
1351020.85894341,7223877.40253944,37.8217000458,101,9249717.74126,-1.08111407069e-07
1351020.75886672,7223877.60262458,37.8136000458,101,9249717.81119,-1.08111406252e-07
1351020.85894341,7223877.50258201,37.8397000458,101,8574437.74869,-1.16625722795e-07
1351020.9590201,7223877.40253944,37.8526000458,101,9249717.92423,-1.08111404931e-07
1351020.85894341,7223877.60262458,37.9326000458,101,9249717.97004,-1.08111404395e-07
1351020.9590201,7223877.50258201,37.9576000458,101,7899157.74065,-1.26595775503e-07
1351020.9590201,7223877.60262458,37.9356000458,101,3611938.80131,-2.76859618894e-07
1351020.9590201,7223877.70266715,37.8896000458,101,7899157.89367,-1.26595773051e-07
1351021.05909678,7223877.60262458,37.9696000458,101,7899157.94705,-1.26595772195e-07
1351021.05909678,7223877.70266715,37.8956000458,101,7899157.87307,-1.26595773381e-07
1351021.15917347,7223877.60262458,37.9206000458,101,9249718.49027,-1.08111398315e-07
1351021.05909678,7223877.80270973,37.8776000458,101,9249718.60882,-1.08111396929e-07
1351021.15917347,7223877.70266715,37.9346000458,101,7899158.03311,-1.26595770816e-07
1351021.15917347,7223877.80270973,37.9087000458,101,3611938.90135,-2.76859611226e-07
1351021.15917347,7223877.9027523,37.8886000458,101,7899158.14287,-1.26595769057e-07
1351021.25925016,7223877.80270973,37.9506000458,101,7899158.19334,-1.26595768248e-07
1351021.25925016,7223877.9027523,37.9536000458,101,3611938.95138,-2.76859607391e-07
1351021.25925016,7223878.00279487,37.9206000458,101,7899158.30639,-1.26595766436e-07
1351021.35932685,7223877.9027523,37.9696000458,101,9249719.03125,-1.08111391992e-07
1351021.25925016,7223878.10283744,37.9227000458,101,9249719.08397,-1.08111391375e-07
1351021.35932685,7223878.00279487,37.9516000458,101,8574438.8081,-1.16625708385e-07
1351021.45940353,7223877.9027523,37.9636000458,101,9249719.39333,-1.0811138776e-07
1351021.35932685,7223878.10283744,37.9127000458,101,9249719.41829,-1.08111387468e-07
1351021.45940353,7223878.00279487,37.9286000458,101,9249719.50144,-1.08111386496e-07
1351021.35932685,7223878.20288001,37.8846000458,101,9249719.50461,-1.08111386459e-07
1351021.45940353,7223878.10283744,37.9426000458,101,7899158.70436,-1.26595760058e-07
1351021.45940353,7223878.20288001,37.8907000458,101,7899158.58462,-1.26595761977e-07
1351021.55948022,7223878.10283744,37.9316000458,101,9249719.52831,-1.08111386182e-07
1351021.45940353,7223878.30292258,37.8836000458,101,9249719.56468,-1.08111385757e-07
1351021.55948022,7223878.20288001,37.8937000458,101,7899158.72509,-1.26595759726e-07
1351021.55948022,7223878.30292258,37.8946000458,101,7899158.73327,-1.26595759595e-07
1351021.65955691,7223878.20288001,37.9216000458,101,9249719.73577,-1.08111383757e-07
1351021.55948022,7223878.40296515,37.9056000458,101,9249719.82709,-1.0811138269e-07
1351021.65955691,7223878.30292258,37.9166000458,101,7899158.89621,-1.26595756984e-07
1351021.65955691,7223878.40296515,37.9456000458,101,7899158.9572,-1.26595756006e-07
1351021.75963359,7223878.30292258,37.9766000458,101,9249720.27404,-1.08111377466e-07
1351021.65955691,7223878.50300773,37.9287000458,101,9249720.39765,-1.08111376021e-07
1351021.75963359,7223878.40296515,37.9506000458,101,7899159.20915,-1.26595751968e-07
1351021.75963359,7223878.50300773,37.9367000458,101,3611939.2515,-2.76859584386e-07
1351021.75963359,7223878.6030503,37.9037000458,101,7899159.12305,-1.26595753348e-07
1351021.85971028,7223878.50300773,37.9396000458,101,7899159.19437,-1.26595752205e-07
1351021.85971028,7223878.6030503,37.9087000458,101,3611939.30153,-2.76859580552e-07
1351021.85971028,7223878.70309287,37.8976000458,101,7899159.27622,-1.26595750893e-07
1351021.95978697,7223878.6030503,37.9616000458,101,9249720.63491,-1.08111373248e-07
1351021.85971028,7223878.80313544,37.8936000458,101,9249720.64999,-1.08111373072e-07
1351021.95978697,7223878.70309287,37.9566000458,101,7899159.41707,-1.26595748636e-07
1351021.95978697,7223878.80313544,37.9106000458,101,7899159.43393,-1.26595748366e-07
1351022.05986366,7223878.70309287,37.9436000458,101,9249720.87566,-1.08111370434e-07
1351021.95978697,7223878.90317801,37.9026000458,101,9249720.91956,-1.08111369921e-07
1351022.05986366,7223878.80313544,37.9717000458,101,7899159.60426,-1.26595745636e-07
1351022.05986366,7223878.90317801,37.9426000458,101,7899159.635,-1.26595745143e-07
1351022.15994034,7223878.80313544,37.9896000458,101,9249721.31981,-1.08111365243e-07
1351022.05986366,7223879.00322058,37.8926000458,101,9249721.35475,-1.08111364834e-07
1351022.15994034,7223878.90317801,37.9686000458,101,7899159.78888,-1.26595742677e-07
1351022.15994034,7223879.00322058,37.9056000458,101,3611939.50161,-2.76859565215e-07
1351022.15994034,7223879.10326315,37.8626000458,101,7899159.8375,-1.26595741898e-07
1351022.26001703,7223879.00322058,37.9656000458,101,7899159.8835,-1.26595741161e-07
1351022.26001703,7223879.10326315,37.9247000458,101,3611939.55163,-2.76859561381e-07
1351022.26001703,7223879.20330572,37.8956000458,101,7899159.96147,-1.26595739911e-07
1351022.36009372,7223879.10326315,37.9726000458,101,7899160.03802,-1.26595738684e-07
1351022.36009372,7223879.20330572,37.9536000458,101,7899160.08818,-1.26595737881e-07
1351022.4601704,7223879.10326315,37.9676000458,101,9249722.20223,-1.08111354929e-07
1351022.36009372,7223879.3033483,37.9176000458,101,9249722.26416,-1.08111354205e-07
1351022.4601704,7223879.20330572,37.9696000458,101,9249722.343,-1.08111353284e-07
1351022.36009372,7223879.40339087,37.9126000458,101,9249722.27398,-1.0811135409e-07
1351022.4601704,7223879.3033483,37.9536000458,101,7899160.37792,-1.26595733237e-07
1351022.4601704,7223879.40339087,37.9117000458,101,7899160.28432,-1.26595734737e-07
1351022.56024709,7223879.3033483,37.9806000458,101,9249722.20169,-1.08111354935e-07
1351022.4601704,7223879.50343344,37.9046000458,101,9249722.28869,-1.08111353918e-07
1351022.56024709,7223879.40339087,37.9717000458,101,7899160.45647,-1.26595731978e-07
1351022.56024709,7223879.50343344,37.8916000458,101,3611939.75172,-2.76859546044e-07
1351022.56024709,7223879.60347601,37.8746000458,101,7899160.51187,-1.2659573109e-07
1351022.66032378,7223879.50343344,37.9476000458,101,7899160.60244,-1.26595729639e-07
1351022.66032378,7223879.60347601,37.9246000458,101,3611939.80174,-2.7685954221e-07
1351022.66032378,7223879.70351858,37.9026000458,101,7899160.66214,-1.26595728682e-07
1351022.76040047,7223879.60347601,37.9696000458,101,7899160.71626,-1.26595727815e-07
1351022.76040047,7223879.70351858,37.9426000458,101,7899160.79811,-1.26595726503e-07
1351022.86047715,7223879.60347601,37.9526000458,101,9249723.18123,-1.08111343486e-07
1351022.76040047,7223879.80356115,37.9196000458,101,9249723.238,-1.08111342823e-07
1351022.86047715,7223879.70351858,37.9656000458,101,7899160.95014,-1.26595724066e-07
1351022.86047715,7223879.80356115,37.9486000458,101,3611939.90178,-2.76859534542e-07
1351022.86047715,7223879.90360372,37.9116000458,101,7899160.97302,-1.265957237e-07
1351022.96055384,7223879.80356115,37.9736000458,101,9249723.32028,-1.08111341861e-07
1351022.86047715,7223880.00364629,37.8696000458,101,9249723.39043,-1.08111341041e-07
1351022.96055384,7223879.90360372,37.9416000458,101,9249723.494,-1.08111339831e-07
1351022.86047715,7223880.10368887,37.8716000458,101,9249723.61461,-1.08111338421e-07
1351022.96055384,7223880.00364629,37.8836000458,101,8574442.4075,-1.16625659428e-07
1351023.06063053,7223879.90360372,37.9446000458,101,9249723.64118,-1.0811133811e-07
1351022.96055384,7223880.10368887,37.8846000458,101,9249723.72897,-1.08111337084e-07
1351023.06063053,7223880.00364629,37.9586000458,101,7899161.31335,-1.26595718245e-07
1351023.06063053,7223880.10368887,37.8946000458,101,7899161.40323,-1.26595716805e-07
1351023.16070721,7223880.00364629,37.9816000458,101,9249724.16141,-1.0811133203e-07
1351023.06063053,7223880.20373144,37.9006000458,101,9249724.13744,-1.0811133231e-07
1351023.16070721,7223880.10368887,37.9626000458,101,7899161.50652,-1.2659571515e-07
1351023.16070721,7223880.20373144,37.9426000458,101,3611940.10187,-2.76859519205e-07
1351023.16070721,7223880.30377401,37.9117000458,101,7899161.50799,-1.26595715126e-07
1351023.2607839,7223880.20373144,37.9656000458,101,7899161.59829,-1.26595713679e-07
1351023.2607839,7223880.30377401,37.9197000458,101,3611940.15189,-2.76859515371e-07
1351023.2607839,7223880.40381658,37.8556000458,101,7899161.66807,-1.2659571256e-07
1351023.36086059,7223880.30377401,37.9596000458,101,7899161.74192,-1.26595711377e-07
1351023.36086059,7223880.40381658,37.9027000458,101,3611940.20191,-2.76859511537e-07
1351023.36086059,7223880.50385915,37.8587000458,101,7899161.82233,-1.26595710088e-07
1351023.46093728,7223880.40381658,37.9526000458,101,9249724.64985,-1.08111326321e-07
1351023.36086059,7223880.60390172,37.8586000458,101,9249724.71937,-1.08111325509e-07
1351023.46093728,7223880.50385915,37.9047000458,101,7899161.94804,-1.26595708074e-07
1351023.46093728,7223880.60390172,37.8956000458,101,7899162.0441,-1.26595706534e-07
1351023.56101396,7223880.50385915,37.9666000458,101,9249725.1153,-1.08111320881e-07
1351023.46093728,7223880.70394429,37.9056000458,101,9249725.16602,-1.08111320288e-07
1351023.56101396,7223880.60390172,37.9637000458,101,7899162.20369,-1.26595703976e-07
1351023.56101396,7223880.70394429,37.9296000458,101,7899162.12125,-1.26595705298e-07
1351023.66109065,7223880.60390172,37.9716000458,101,9249725.22238,-1.08111319629e-07
1351023.56101396,7223880.80398687,37.8676000458,101,9249725.37856,-1.08111317804e-07
1351023.66109065,7223880.70394429,37.9647000458,101,9249725.4067,-1.08111317475e-07
1351023.56101396,7223880.90402944,37.8426000458,101,9249725.40325,-1.08111317515e-07
1351023.66109065,7223880.80398687,37.9057000458,101,8574443.92095,-1.16625638843e-07
1351023.76116734,7223880.70394429,37.9676000458,101,9249725.53894,-1.08111315929e-07
1351023.66109065,7223880.90402944,37.8436000458,101,9249725.53665,-1.08111315956e-07
1351023.76116734,7223880.80398687,37.9776000458,101,7899162.45801,-1.265956999e-07
1351023.76116734,7223880.90402944,37.9207000458,101,3611940.45201,-2.76859492366e-07
1351023.76116734,7223881.00407201,37.8926000458,101,7899162.62424,-1.26595697236e-07
1351023.86124402,7223880.90402944,37.9796000458,101,9249725.98594,-1.08111310705e-07
1351023.76116734,7223881.10411458,37.8956000458,101,9249726.03864,-1.08111310089e-07
1351023.86124402,7223881.00407201,37.9456000458,101,7899162.78988,-1.26595694582e-07
1351023.86124402,7223881.10411458,37.9226000458,101,7899162.69741,-1.26595696064e-07
1351023.96132071,7223881.00407201,37.9856000458,101,9249726.04183,-1.08111310052e-07
1351023.86124402,7223881.20415715,37.9087000458,101,9249726.09846,-1.0811130939e-07
1351023.96132071,7223881.10411458,37.9426000458,101,7899162.87361,-1.2659569324e-07
1351023.96132071,7223881.20415715,37.8917000458,101,7899162.83226,-1.26595693903e-07
1351024.0613974,7223881.10411458,37.9706000458,101,9249726.26774,-1.08111307411e-07
1351023.96132071,7223881.30419972,37.8506000458,101,9249726.303,-1.08111306999e-07
1351024.0613974,7223881.20415715,37.9496000458,101,7899162.92444,-1.26595692425e-07
1351024.0613974,7223881.30419972,37.8867000458,101,3611940.6521,-2.76859477029e-07
1351024.0613974,7223881.40424229,37.8696000458,101,7899163.09009,-1.2659568977e-07
1351024.16147409,7223881.30419972,37.9597000458,101,7899163.13107,-1.26595689114e-07
1351024.16147409,7223881.40424229,37.8966000458,101,10600290.3494,-9.43370386132e-08
1351024.0613974,7223881.60432744,37.8966000458,101,9249726.90099,-1.0811130001e-07
1351024.16147409,7223881.50428486,37.8976000458,101,8574445.18623,-1.16625621633e-07
1351024.26155077,7223881.40424229,37.9726000458,101,9249727.17651,-1.08111296789e-07
1351024.16147409,7223881.60432744,37.9016000458,101,9249727.27177,-1.08111295676e-07
1351024.26155077,7223881.50428486,37.9346000458,101,7899163.5472,-1.26595682445e-07
1351024.26155077,7223881.60432744,37.9206000458,101,7899163.43792,-1.26595684196e-07
1351024.36162746,7223881.50428486,37.9706000458,101,9249727.26448,-1.08111295761e-07
1351024.26155077,7223881.70437001,37.8567000458,101,9249727.23162,-1.08111296145e-07
1351024.36162746,7223881.60432744,37.9306000458,101,7899163.53008,-1.26595682719e-07
1351024.36162746,7223881.70437001,37.8506000458,101,7899163.50846,-1.26595683066e-07
1351024.46170415,7223881.60432744,37.9576000458,101,9249727.35697,-1.0811129468e-07
1351024.36162746,7223881.80441258,37.8526000458,101,9249727.4007,-1.08111294169e-07
1351024.46170415,7223881.70437001,37.9507000458,101,7899163.66801,-1.26595680508e-07
1351024.46170415,7223881.80441258,37.8726000458,101,3611940.90221,-2.76859457858e-07
1351024.46170415,7223881.90445515,37.8656000458,101,7899163.81181,-1.26595678204e-07
1351024.56178083,7223881.80441258,37.9567000458,101,7899163.90189,-1.2659567676e-07
1351024.56178083,7223881.90445515,37.9086000458,101,7899163.83131,-1.26595677891e-07
1351024.66185752,7223881.80441258,37.9706000458,101,9249727.85983,-1.08111288803e-07
1351024.56178083,7223882.00449772,37.9316000458,101,9249727.91271,-1.08111288185e-07
1351024.66185752,7223881.90445515,37.9577000458,101,7899164.01828,-1.26595674895e-07
1351024.66185752,7223882.00449772,37.9336000458,101,3611941.00225,-2.7685945019e-07
1351024.66185752,7223882.10454029,37.8787000458,101,7899164.0748,-1.26595673989e-07
1351024.76193421,7223882.00449772,37.9616000458,101,7899164.13496,-1.26595673025e-07
1351024.76193421,7223882.10454029,37.8967000458,101,10600292.5358,-9.43370191554e-08
1351024.66185752,7223882.30462544,37.8316000458,101,9249728.50136,-1.08111281304e-07
1351024.76193421,7223882.20458286,37.8537000458,101,8574446.49669,-1.16625603808e-07
1351024.86201089,7223882.10454029,37.9346000458,101,9249728.74013,-1.08111278514e-07
1351024.76193421,7223882.30462544,37.8637000458,101,9249728.87749,-1.08111276908e-07
1351024.86201089,7223882.20458286,37.9347000458,101,9249728.93533,-1.08111276232e-07
1351024.76193421,7223882.40466801,37.8566000458,101,9249728.89023,-1.08111276759e-07
1351024.86201089,7223882.30462544,37.8666000458,101,8574446.68395,-1.16625601261e-07
1351024.96208758,7223882.20458286,37.9566000458,101,9249728.89354,-1.08111276721e-07
1351024.86201089,7223882.40466801,37.8606000458,101,9249728.84269,-1.08111277315e-07
1351024.96208758,7223882.30462544,37.9497000458,101,7899164.52023,-1.26595666851e-07
1351024.96208758,7223882.40466801,37.9036000458,101,3611941.20233,-2.76859434853e-07
1351024.96208758,7223882.50471058,37.8926000458,101,7899164.63425,-1.26595665023e-07
1351025.06216427,7223882.40466801,37.9537000458,101,7899164.70742,-1.26595663851e-07
1351025.06216427,7223882.50471058,37.9027000458,101,3611941.25236,-2.76859431019e-07
1351025.06216427,7223882.60475315,37.8536000458,101,7899164.74518,-1.26595663245e-07
1351025.16224096,7223882.50471058,37.9696000458,101,7899164.87283,-1.265956612e-07
1351025.16224096,7223882.60475315,37.8767000458,101,3611941.30238,-2.76859427184e-07
1351025.16224096,7223882.70479572,37.8627000458,101,7899165.0092,-1.26595659014e-07
1351025.26231764,7223882.60475315,37.9316000458,101,7899165.02193,-1.2659565881e-07
1351025.26231764,7223882.70479572,37.8757000458,101,3611941.3524,-2.7685942335e-07
1351025.26231764,7223882.80483829,37.8776000458,101,7899165.10177,-1.2659565753e-07
1351025.36239433,7223882.70479572,37.9496000458,101,9249729.83369,-1.08111265732e-07
1351025.26231764,7223882.90488086,37.8786000458,101,9249729.88384,-1.08111265146e-07
1351025.36239433,7223882.80483829,37.9376000458,101,7899165.23917,-1.26595655328e-07
1351025.36239433,7223882.90488086,37.9006000458,101,7899165.20234,-1.26595655919e-07
1351025.46247102,7223882.80483829,37.9566000458,101,9249730.08855,-1.08111262753e-07
1351025.36239433,7223883.00492343,37.9007000458,101,9249730.14327,-1.08111262114e-07
1351025.46247102,7223882.90488086,37.9437000458,101,7899165.39655,-1.26595652806e-07
1351025.46247102,7223883.00492343,37.8677000458,101,3611941.50246,-2.76859411848e-07
1351025.46247102,7223883.10496601,37.8316000458,101,7899165.61616,-1.26595649287e-07
1351025.5625477,7223883.00492343,37.9146000458,101,7899165.66309,-1.26595648534e-07
1351025.5625477,7223883.10496601,37.8877000458,101,3611941.55248,-2.76859408014e-07
1351025.5625477,7223883.20500858,37.8476000458,101,7899165.62478,-1.26595649148e-07
1351025.66262439,7223883.10496601,37.9256000458,101,9249730.69993,-1.08111255607e-07
1351025.5625477,7223883.30505115,37.8677000458,101,9249730.71814,-1.08111255395e-07
1351025.66262439,7223883.20500858,37.8767000458,101,8574448.26625,-1.1662557974e-07
1351025.76270108,7223883.10496601,37.9296000458,101,9249730.81416,-1.08111254272e-07
1351025.66262439,7223883.30505115,37.8766000458,101,10600295.9362,-9.4336988893e-08
1351025.66262439,7223883.40509372,37.8956000458,101,7899165.88262,-1.26595645016e-07
1351025.76270108,7223883.30505115,37.9377000458,101,7899165.90368,-1.26595644679e-07
1351025.76270108,7223883.40509372,37.9006000458,101,7899165.96434,-1.26595643706e-07
1351025.86277777,7223883.30505115,37.9526000458,101,9249731.17459,-1.0811125006e-07
1351025.76270108,7223883.50513629,37.8686000458,101,9249731.2424,-1.08111249267e-07
1351025.86277777,7223883.40509372,37.9307000458,101,7899166.06105,-1.26595642157e-07
1351025.86277777,7223883.50513629,37.8626000458,101,7899166.10645,-1.26595641429e-07
1351025.96285445,7223883.40509372,37.9066000458,101,9249731.61837,-1.08111244873e-07
1351025.86277777,7223883.60517886,37.8516000458,101,9249731.67848,-1.0811124417e-07
1351025.96285445,7223883.50513629,37.9396000458,101,7899166.28119,-1.26595638629e-07
1351025.96285445,7223883.60517886,37.8797000458,101,7899166.24839,-1.26595639154e-07
1351026.06293114,7223883.50513629,37.9226000458,101,9249731.71084,-1.08111243792e-07
1351025.96285445,7223883.70522143,37.8666000458,101,9249731.75298,-1.08111243299e-07
1351026.06293114,7223883.60517886,37.9446000458,101,7899166.36492,-1.26595637287e-07
1351026.06293114,7223883.70522143,37.8917000458,101,3611941.85261,-2.76859385008e-07
1351026.06293114,7223883.805264,37.9226000458,101,7899166.45923,-1.26595635775e-07
1351026.16300783,7223883.70522143,37.9426000458,101,7899166.50856,-1.26595634985e-07
1351026.16300783,7223883.805264,37.9216000458,101,3611941.90263,-2.76859381174e-07
1351026.16300783,7223883.90530658,37.8897000458,101,6548600.92372,-1.52704373292e-07
1351026.26308451,7223883.90530658,37.8797000458,101,6548601.05398,-1.52704370255e-07
1351026.26308451,7223884.00534915,37.8626000458,101,7899166.78445,-1.26595630563e-07
1351026.3631612,7223883.90530658,37.9126000458,101,9249732.56215,-1.08111233842e-07
1351026.26308451,7223884.10539172,37.8357000458,101,9249732.58516,-1.08111233573e-07
1351026.3631612,7223884.00534915,37.9407000458,101,7899166.9156,-1.26595628461e-07
1351026.3631612,7223884.10539172,37.8696000458,101,3611942.0527,-2.76859369672e-07
1351026.3631612,7223884.20543429,37.8606000458,101,7899167.03883,-1.26595626486e-07
1351026.46323789,7223884.10539172,37.9466000458,101,7899167.03746,-1.26595626508e-07
1351026.46323789,7223884.20543429,37.8826000458,101,7899167.08974,-1.2659562567e-07
1351026.56331458,7223884.10539172,37.9416000458,101,9249733.00311,-1.08111228688e-07
1351026.46323789,7223884.30547686,37.8846000458,101,9249733.08976,-1.08111227675e-07
1351026.56331458,7223884.20543429,37.9527000458,101,7899167.23036,-1.26595623417e-07
1351026.56331458,7223884.30547686,37.9226000458,101,3611942.15274,-2.76859362003e-07
1351026.56331458,7223884.40551943,37.8656000458,101,7899167.3878,-1.26595620893e-07
1351026.66339126,7223884.30547686,37.9456000458,101,7899167.44479,-1.2659561998e-07
1351026.66339126,7223884.40551943,37.8807000458,101,3611942.20276,-2.76859358169e-07
1351026.66339126,7223884.505562,37.8526000458,101,7899167.49201,-1.26595619223e-07
1351026.76346795,7223884.40551943,37.9336000458,101,9249733.6845,-1.08111220724e-07
1351026.66339126,7223884.60560458,37.8576000458,101,9249733.80802,-1.0811121928e-07
1351026.76346795,7223884.505562,37.9107000458,101,7899167.65632,-1.2659561659e-07
1351026.76346795,7223884.60560458,37.8646000458,101,3611942.3028,-2.76859350501e-07
1351026.76346795,7223884.70564715,37.8736000458,101,7899167.72646,-1.26595615466e-07
1351026.86354464,7223884.60560458,37.9406000458,101,7899167.773,-1.2659561472e-07
1351026.86354464,7223884.70564715,37.9196000458,101,7899167.83936,-1.26595613657e-07
1351026.96362132,7223884.60560458,37.9506000458,101,9249734.31811,-1.08111213318e-07
1351026.86354464,7223884.80568972,37.8756000458,101,9249734.37381,-1.08111212667e-07
1351026.96362132,7223884.70564715,37.9427000458,101,7899168.01777,-1.26595610797e-07
1351026.96362132,7223884.80568972,37.8657000458,101,3611942.40284,-2.76859342832e-07
1351026.96362132,7223884.90573229,37.8396000458,101,7899168.03443,-1.2659561053e-07
1351027.06369801,7223884.80568972,37.9216000458,101,7899168.01957,-1.26595610768e-07
1351027.06369801,7223884.90573229,37.8817000458,101,3611942.45287,-2.76859338998e-07
1351027.06369801,7223885.00577486,37.8646000458,101,7899168.18761,-1.26595608075e-07
1351027.1637747,7223884.90573229,37.9116000458,101,7899168.24228,-1.26595607199e-07
1351027.1637747,7223885.00577486,37.8937000458,101,3611942.50289,-2.76859335164e-07
1351027.1637747,7223885.10581743,37.8706000458,101,3611942.55291,-2.7685933133e-07
1351027.1637747,7223885.20586,37.8806000458,101,7899168.43218,-1.26595604156e-07
1351027.26385139,7223885.10581743,37.9336000458,101,7899168.49765,-1.26595603106e-07
1351027.26385139,7223885.20586,37.9106000458,101,7899168.55728,-1.26595602151e-07
1351027.36392807,7223885.10581743,37.9416000458,101,9249735.42112,-1.08111200426e-07
1351027.26385139,7223885.30590257,37.8417000458,101,9249735.46175,-1.08111199951e-07
1351027.36392807,7223885.20586,37.9316000458,101,7899168.75331,-1.26595599009e-07
1351027.36392807,7223885.30590257,37.8557000458,101,3611942.65295,-2.76859323661e-07
1351027.36392807,7223885.40594515,37.8306000458,101,7899168.7991,-1.26595598275e-07
1351027.46400476,7223885.30590257,37.9266000458,101,7899168.79011,-1.26595598419e-07
1351027.46400476,7223885.40594515,37.8626000458,101,3611942.70297,-2.76859319827e-07
1351027.46400476,7223885.50598772,37.8426000458,101,7899168.854,-1.26595597396e-07
1351027.56408145,7223885.40594515,37.9426000458,101,7899168.92856,-1.265955962e-07
1351027.56408145,7223885.50598772,37.8847000458,101,3611942.75299,-2.76859315993e-07
1351027.56408145,7223885.60603029,37.9176000458,101,7899169.09279,-1.26595593568e-07
1351027.66415813,7223885.50598772,37.9426000458,101,9249736.28844,-1.08111190289e-07
1351027.56408145,7223885.70607286,37.8826000458,101,9249736.3411,-1.08111189673e-07
1351027.66415813,7223885.60603029,37.9296000458,101,7899169.25758,-1.26595590927e-07
1351027.66415813,7223885.70607286,37.8827000458,101,3611942.85304,-2.76859308325e-07
1351027.66415813,7223885.80611543,37.8396000458,101,7899169.27751,-1.26595590608e-07
1351027.76423482,7223885.70607286,37.8747000458,101,7899169.32472,-1.26595589852e-07
1351027.76423482,7223885.80611543,37.8556000458,101,3611942.90306,-2.76859304491e-07
1351027.76423482,7223885.906158,37.8426000458,101,7899169.41183,-1.26595588455e-07
1351027.86431151,7223885.80611543,37.9166000458,101,7899169.4821,-1.26595587329e-07
1351027.86431151,7223885.906158,37.8716000458,101,3611942.95308,-2.76859300656e-07
1351027.86431151,7223886.00620057,37.8576000458,101,7899169.58733,-1.26595585643e-07
1351027.9643882,7223885.906158,37.9356000458,101,7899169.63144,-1.26595584936e-07
1351027.9643882,7223886.00620057,37.9087000458,101,3611943.0031,-2.76859296822e-07
1351027.9643882,7223886.10624314,37.8806000458,101,7899169.8216,-1.26595581888e-07
1351028.06446488,7223886.00620057,37.9586000458,101,9249737.47513,-1.08111176419e-07
1351027.9643882,7223886.20628572,37.8617000458,101,9249737.56215,-1.08111175402e-07
1351028.06446488,7223886.10624314,37.9156000458,101,7899170.02579,-1.26595578616e-07
1351028.06446488,7223886.20628572,37.8576000458,101,7899169.95801,-1.26595579702e-07
1351028.16454157,7223886.10624314,37.9326000458,101,9249737.5597,-1.0811117543e-07
1351028.06446488,7223886.30632829,37.8426000458,101,9249737.54852,-1.08111175561e-07
1351028.16454157,7223886.20628572,37.8717000458,101,7899170.011,-1.26595578853e-07
1351028.16454157,7223886.30632829,37.8637000458,101,7899170.0376,-1.26595578427e-07
1351028.26461826,7223886.20628572,37.9316000458,101,9249737.68775,-1.08111173934e-07
1351028.16454157,7223886.40637086,37.8487000458,101,9249737.72911,-1.0811117345e-07
1351028.26461826,7223886.30632829,37.9277000458,101,7899170.13286,-1.265955769e-07
1351028.26461826,7223886.40637086,37.8717000458,101,7899170.25538,-1.26595574936e-07
1351028.36469494,7223886.30632829,37.9216000458,101,9249738.15718,-1.08111168447e-07
1351028.26461826,7223886.50641343,37.8536000458,101,9249738.17191,-1.08111168275e-07
1351028.36469494,7223886.40637086,37.9386000458,101,7899170.40226,-1.26595572582e-07
1351028.36469494,7223886.50641343,37.9027000458,101,7899170.32272,-1.26595573857e-07
1351028.46477163,7223886.40637086,37.9486000458,101,9249738.19903,-1.08111167958e-07
1351028.36469494,7223886.606456,37.8997000458,101,9249738.23957,-1.08111167484e-07
1351028.46477163,7223886.50641343,37.9496000458,101,9249738.28137,-1.08111166995e-07
1351028.36469494,7223886.70649857,37.8477000458,101,9249738.32191,-1.08111166522e-07
1351028.46477163,7223886.606456,37.9197000458,101,7899170.58399,-1.2659556967e-07
1351028.46477163,7223886.70649857,37.8366000458,101,7899170.59144,-1.2659556955e-07
1351028.56484832,7223886.606456,37.9346000458,101,9249738.54376,-1.08111163928e-07
1351028.46477163,7223886.80654114,37.8356000458,101,9249738.5855,-1.08111163441e-07
1351028.56484832,7223886.70649857,37.8777000458,101,7899170.7494,-1.26595567019e-07
1351028.56484832,7223886.80654114,37.8537000458,101,7899170.74699,-1.26595567058e-07
1351028.66492501,7223886.70649857,37.9246000458,101,9249738.8571,-1.08111160266e-07
1351028.56484832,7223886.90658372,37.8626000458,101,9249738.98465,-1.08111158775e-07
1351028.66492501,7223886.80654114,37.9256000458,101,7899170.9257,-1.26595564193e-07
1351028.66492501,7223886.90658372,37.8857000458,101,3611943.45329,-2.76859262314e-07
1351028.66492501,7223887.00662629,37.8646000458,101,7899171.02965,-1.26595562528e-07
1351028.76500169,7223886.90658372,37.9476000458,101,7899171.11317,-1.26595561189e-07
1351028.76500169,7223887.00662629,37.9016000458,101,7899171.04408,-1.26595562296e-07
1351028.86507838,7223886.90658372,37.9566000458,101,9249739.29833,-1.08111155109e-07
1351028.76500169,7223887.10666886,37.8616000458,101,9249739.31307,-1.08111154937e-07
1351028.86507838,7223887.00662629,37.9396000458,101,9249739.38466,-1.081111541e-07
1351028.76500169,7223887.20671143,37.8476000458,101,9249739.42516,-1.08111153627e-07
1351028.86507838,7223887.10666886,37.8837000458,101,9249739.48187,-1.08111152964e-07
1351028.76500169,7223887.306754,37.8166000458,101,9249739.5144,-1.08111152584e-07
1351028.86507838,7223887.20671143,37.8487000458,101,8574455.47297,-1.16625481717e-07
1351028.96515507,7223887.10666886,37.9356000458,101,7899171.30217,-1.2659555816e-07
1351028.96515507,7223887.20671143,37.8707000458,101,3611943.60336,-2.76859250812e-07
1351028.96515507,7223887.306754,37.8637000458,101,7899171.49157,-1.26595555125e-07
1351029.06523175,7223887.20671143,37.9236000458,101,9249740.05829,-1.08111146227e-07
1351028.96515507,7223887.40679657,37.8606000458,101,9249740.10566,-1.08111145673e-07
1351029.06523175,7223887.306754,37.9287000458,101,7899171.63404,-1.26595552841e-07
1351029.06523175,7223887.40679657,37.8926000458,101,3611943.7034,-2.76859243144e-07
1351029.06523175,7223887.50683914,37.8696000458,101,7899171.67628,-1.26595552164e-07
1351029.16530844,7223887.40679657,37.9297000458,101,7899171.71777,-1.26595551499e-07
1351029.16530844,7223887.50683914,37.9077000458,101,7899171.72772,-1.2659555134e-07
1351029.26538513,7223887.40679657,37.9316000458,101,9249740.39489,-1.08111142292e-07
1351029.16530844,7223887.60688171,37.8596000458,101,9249740.42477,-1.08111141943e-07
1351029.26538513,7223887.50683914,37.9366000458,101,7899171.87515,-1.26595548977e-07
1351029.26538513,7223887.60688171,37.8477000458,101,3611943.80344,-2.76859235475e-07
1351029.26538513,7223887.70692429,37.8396000458,101,7899172.05731,-1.26595546058e-07
1351029.36546182,7223887.60688171,37.9246000458,101,9249740.87094,-1.08111136728e-07
1351029.26538513,7223887.80696686,37.8306000458,101,9249740.82192,-1.08111137301e-07
1351029.36546182,7223887.70692429,37.9186000458,101,7899172.09501,-1.26595545454e-07
1351029.36546182,7223887.80696686,37.8576000458,101,7899172.19568,-1.2659554384e-07
1351029.4655385,7223887.70692429,37.9296000458,101,9249741.17326,-1.08111133195e-07
1351029.36546182,7223887.90700943,37.8676000458,101,9249741.25153,-1.0811113228e-07
1351029.4655385,7223887.80696686,37.9257000458,101,7899172.3587,-1.26595541228e-07
1351029.4655385,7223887.90700943,37.9096000458,101,3611943.9535,-2.76859223973e-07
1351029.4655385,7223888.007052,37.8496000458,101,7899172.35862,-1.26595541229e-07
1351029.56561519,7223887.90700943,37.9266000458,101,7899172.46706,-1.26595539491e-07
1351029.56561519,7223888.007052,37.8657000458,101,3611944.00353,-2.76859220138e-07
1351029.56561519,7223888.10709457,37.8496000458,101,7899172.53811,-1.26595538352e-07
1351029.66569188,7223888.007052,37.9296000458,101,7899172.59696,-1.26595537409e-07
1351029.66569188,7223888.10709457,37.8636000458,101,3611944.05355,-2.76859216304e-07
1351029.66569188,7223888.20713714,37.8256000458,101,7899172.7381,-1.26595535147e-07
1351029.76576856,7223888.10709457,37.9386000458,101,7899172.81994,-1.26595533836e-07
1351029.76576856,7223888.20713714,37.9067000458,101,3611944.10357,-2.7685921247e-07
1351029.76576856,7223888.30717971,37.8567000458,101,7899172.81365,-1.26595533936e-07
1351029.86584525,7223888.20713714,37.9226000458,101,9249742.12045,-1.08111122124e-07
1351029.76576856,7223888.40722229,37.8787000458,101,9249742.23441,-1.08111120792e-07
1351029.86584525,7223888.30717971,37.9126000458,101,7899173.06415,-1.26595529922e-07
1351029.86584525,7223888.40722229,37.8736000458,101,7899173.03751,-1.26595530349e-07
1351029.96592194,7223888.30717971,37.9446000458,101,9249742.46676,-1.08111118076e-07
1351029.86584525,7223888.50726486,37.8527000458,101,9249742.43854,-1.08111118406e-07
1351029.96592194,7223888.40722229,37.9237000458,101,7899173.16138,-1.26595528364e-07
1351029.96592194,7223888.50726486,37.8567000458,101,3611944.25363,-2.76859200968e-07
1351029.96592194,7223888.60730743,37.8186000458,101,7899173.24298,-1.26595527056e-07
1351030.06599863,7223888.50726486,37.9267000458,101,7899173.30216,-1.26595526107e-07
1351030.06599863,7223888.60730743,37.8337000458,101,7899173.36678,-1.26595525072e-07
1351030.16607531,7223888.50726486,37.9276000458,101,9249743.04239,-1.08111111348e-07
1351030.06599863,7223888.70735,37.8356000458,101,9249743.08178,-1.08111110888e-07
1351030.16607531,7223888.60730743,37.9416000458,101,7899173.51426,-1.26595522708e-07
1351030.16607531,7223888.70735,37.8887000458,101,3611944.35368,-2.76859193299e-07
1351030.16607531,7223888.80739257,37.8856000458,101,7899173.53317,-1.26595522405e-07
1351030.266152,7223888.70735,37.9436000458,101,9249743.18825,-1.08111109644e-07
1351030.16607531,7223888.90743514,37.8596000458,101,9249743.21424,-1.0811110934e-07
1351030.266152,7223888.80739257,37.9146000458,101,7899173.69884,-1.2659551975e-07
1351030.266152,7223888.90743514,37.8547000458,101,3611944.45372,-2.76859185631e-07
1351030.266152,7223889.00747771,37.8366000458,101,7899173.78939,-1.26595518299e-07
1351030.36622869,7223888.90743514,37.9176000458,101,7899173.82071,-1.26595517797e-07
1351030.36622869,7223889.00747771,37.8327000458,101,7899173.8885,-1.2659551671e-07
1351030.46630537,7223888.90743514,37.9316000458,101,9249743.84438,-1.08111101975e-07
1351030.266152,7223889.20756286,37.7986000458,101,9249743.85766,-1.0811110182e-07
1351030.36622869,7223889.10752028,37.8296000458,101,8574458.97187,-1.16625434127e-07
1351030.46630537,7223889.00747771,37.9217000458,101,7899174.08958,-1.26595513488e-07
1351030.46630537,7223889.10752028,37.8596000458,101,3611944.55376,-2.76859177962e-07
1351030.46630537,7223889.20756286,37.8696000458,101,7899174.14919,-1.26595512533e-07
1351030.56638206,7223889.10752028,37.9506000458,101,9249744.16659,-1.08111098209e-07
1351030.46630537,7223889.30760543,37.8686000458,101,9249744.14454,-1.08111098466e-07
1351030.56638206,7223889.20756286,37.9066000458,101,7899174.21401,-1.26595511494e-07
1351030.56638206,7223889.30760543,37.8787000458,101,7899174.23008,-1.26595511236e-07
1351030.66645875,7223889.20756286,37.9526000458,101,9249744.28443,-1.08111096831e-07
1351030.56638206,7223889.407648,37.8497000458,101,9249744.3514,-1.08111096049e-07
1351030.66645875,7223889.30760543,37.9147000458,101,7899174.40691,-1.26595508402e-07
1351030.66645875,7223889.407648,37.8337000458,101,7899174.44418,-1.26595507805e-07
1351030.76653543,7223889.30760543,37.9306000458,101,9249744.73573,-1.08111091557e-07
1351030.66645875,7223889.50769057,37.8146000458,101,9249744.77646,-1.08111091081e-07
1351030.76653543,7223889.407648,37.8597000458,101,7899174.56119,-1.2659550593e-07
1351030.76653543,7223889.50769057,37.8226000458,101,7899174.5402,-1.26595506266e-07
1351030.86661212,7223889.407648,37.9236000458,101,9249744.80214,-1.0811109078e-07
1351030.76653543,7223889.60773314,37.8176000458,101,9249744.83578,-1.08111090387e-07
1351030.86661212,7223889.50769057,37.9207000458,101,7899174.65581,-1.26595504413e-07
1351030.86661212,7223889.60773314,37.8607000458,101,3611944.80387,-2.76859158792e-07
1351030.86661212,7223889.70777571,37.8576000458,101,7899174.75686,-1.26595502794e-07
1351030.96668881,7223889.60773314,37.9396000458,101,7899174.82693,-1.26595501671e-07
1351030.96668881,7223889.70777571,37.9016000458,101,3611944.85389,-2.76859154957e-07
1351030.96668881,7223889.80781828,37.8517000458,101,7899174.91457,-1.26595500266e-07
1351031.0667655,7223889.70777571,37.9326000458,101,9249745.35471,-1.08111084322e-07
1351030.96668881,7223889.90786085,37.8286000458,101,9249745.43088,-1.08111083432e-07
1351031.0667655,7223889.80781828,37.8547000458,101,7899175.09605,-1.26595497358e-07
1351031.0667655,7223889.90786085,37.8507000458,101,3611944.95393,-2.76859147289e-07
1351031.0667655,7223890.00790343,37.8207000458,101,7899175.33797,-1.26595493481e-07
1351031.16684218,7223889.90786085,37.9107000458,101,7899175.38437,-1.26595492737e-07
1351031.16684218,7223890.00790343,37.8606000458,101,3611945.00395,-2.76859143455e-07
1351031.16684218,7223890.107946,37.8416000458,101,7899175.33938,-1.26595493458e-07
1351031.26691887,7223890.00790343,37.9127000458,101,7899175.41884,-1.26595492185e-07
1351031.26691887,7223890.107946,37.8507000458,101,3611945.05397,-2.76859139621e-07
1351031.26691887,7223890.20798857,37.8847000458,101,7899175.48567,-1.26595491114e-07
1351031.36699556,7223890.107946,37.9496000458,101,9249746.2109,-1.08111074315e-07
1351031.26691887,7223890.30803114,37.8656000458,101,9249746.28864,-1.08111073406e-07
1351031.36699556,7223890.20798857,37.9006000458,101,7899175.64958,-1.26595488487e-07
1351031.36699556,7223890.30803114,37.8217000458,101,7899175.68383,-1.26595487938e-07
1351031.46707224,7223890.20798857,37.9306000458,101,9249746.72011,-1.08111068363e-07
1351031.36699556,7223890.40807371,37.8036000458,101,9249746.71507,-1.08111068422e-07
1351031.46707224,7223890.30803114,37.8537000458,101,7899175.8342,-1.26595485528e-07
1351031.46707224,7223890.40807371,37.8336000458,101,7899175.81035,-1.2659548591e-07
1351031.56714893,7223890.30803114,37.9276000458,101,9249746.74276,-1.08111068098e-07
1351031.46707224,7223890.50811628,37.8376000458,101,9249746.77258,-1.0811106775e-07
1351031.56714893,7223890.40807371,37.9047000458,101,7899175.92882,-1.26595484011e-07
1351031.56714893,7223890.50811628,37.8236000458,101,3611945.25406,-2.76859124284e-07
1351031.56714893,7223890.60815885,37.8086000458,101,7899176.04005,-1.26595482229e-07
1351031.66722562,7223890.50811628,37.9107000458,101,7899176.10227,-1.26595481232e-07
1351031.66722562,7223890.60815885,37.8836000458,101,3611945.30408,-2.7685912045e-07
1351031.66722562,7223890.70820142,37.8627000458,101,7899176.16747,-1.26595480187e-07
1351031.76730231,7223890.60815885,37.9366000458,101,7899176.26536,-1.26595478618e-07
1351031.76730231,7223890.70820142,37.8667000458,101,7899176.29709,-1.26595478109e-07
1351031.86737899,7223890.60815885,37.9396000458,101,9249747.76972,-1.08111056095e-07
1351031.76730231,7223890.808244,37.8306000458,101,9249747.88565,-1.0811105474e-07
1351031.86737899,7223890.70820142,37.9156000458,101,7899176.53423,-1.26595474309e-07
1351031.86737899,7223890.808244,37.8437000458,101,3611945.40412,-2.76859112781e-07
1351031.86737899,7223890.90828657,37.8536000458,101,7899176.46295,-1.26595475451e-07
1351031.96745568,7223890.808244,37.9116000458,101,9249747.81788,-1.08111055532e-07
1351031.86737899,7223891.00832914,37.8516000458,101,9249747.88349,-1.08111054766e-07
1351031.96745568,7223890.90828657,37.9087000458,101,7899176.62315,-1.26595472884e-07
1351031.96745568,7223891.00832914,37.8516000458,101,7899176.61958,-1.26595472941e-07
1351032.06753237,7223890.90828657,37.9276000458,101,9249748.07354,-1.08111052544e-07
1351031.96745568,7223891.10837171,37.8676000458,101,9249748.14634,-1.08111051693e-07
1351032.06753237,7223891.00832914,37.9107000458,101,7899176.78338,-1.26595470316e-07
1351032.06753237,7223891.10837171,37.8897000458,101,3611945.55419,-2.76859101279e-07
1351032.06753237,7223891.20841428,37.8077000458,101,7899176.96249,-1.26595467445e-07
1351032.16760905,7223891.10837171,37.9117000458,101,7899176.98174,-1.26595467137e-07
1351032.16760905,7223891.20841428,37.8067000458,101,3611945.60421,-2.76859097445e-07
1351032.16760905,7223891.30845685,37.8046000458,101,7899177.02531,-1.26595466439e-07
1351032.26768574,7223891.20841428,37.9006000458,101,9249748.7166,-1.08111045028e-07
1351032.16760905,7223891.40849942,37.8116000458,101,9249748.7209,-1.08111044978e-07
1351032.26768574,7223891.30845685,37.8887000458,101,7899177.16865,-1.26595464141e-07
1351032.26768574,7223891.40849942,37.8417000458,101,7899177.17504,-1.26595464039e-07
1351032.36776243,7223891.30845685,37.9146000458,101,9249748.94649,-1.08111042341e-07
1351032.26768574,7223891.50854199,37.8436000458,101,9249749.01879,-1.08111041496e-07
1351032.36776243,7223891.40849942,37.9027000458,101,7899177.36155,-1.2659546105e-07
1351032.36776243,7223891.50854199,37.8657000458,101,3611945.75427,-2.76859085942e-07
1351032.36776243,7223891.60858457,37.8656000458,101,7899177.47511,-1.2659545923e-07
1351032.46783912,7223891.50854199,37.9087000458,101,7899177.52411,-1.26595458445e-07
1351032.46783912,7223891.60858457,37.8836000458,101,7899177.61216,-1.26595457033e-07
1351032.5679158,7223891.50854199,37.9146000458,101,9249749.75194,-1.08111032927e-07
1351032.46783912,7223891.70862714,37.8217000458,101,9249749.75573,-1.08111032883e-07
1351032.5679158,7223891.60858457,37.8906000458,101,7899177.6898,-1.26595455789e-07
1351032.5679158,7223891.70862714,37.8327000458,101,7899177.6763,-1.26595456006e-07
1351032.66799249,7223891.60858457,37.8876000458,101,9249749.66147,-1.08111033985e-07
1351032.5679158,7223891.80866971,37.8256000458,101,9249749.72065,-1.08111033293e-07
1351032.66799249,7223891.70862714,37.8956000458,101,9249749.79135,-1.08111032467e-07
1351032.5679158,7223891.90871228,37.8156000458,101,9249749.82185,-1.0811103211e-07
1351032.66799249,7223891.80866971,37.8857000458,101,7899177.89045,-1.26595452573e-07
1351032.66799249,7223891.90871228,37.8336000458,101,7899177.89587,-1.26595452487e-07
1351032.76806918,7223891.80866971,37.9106000458,101,9249750.05793,-1.08111029351e-07
1351032.66799249,7223892.00875485,37.8366000458,101,9249750.08283,-1.0811102906e-07
1351032.76806918,7223891.90871228,37.8976000458,101,7899178.05069,-1.26595450005e-07
1351032.76806918,7223892.00875485,37.8636000458,101,3611946.00438,-2.76859066771e-07
1351032.76806918,7223892.10879742,37.8556000458,101,7899178.19815,-1.26595447642e-07
1351032.86814586,7223892.00875485,37.8836000458,101,7899178.24334,-1.26595446918e-07
1351032.86814586,7223892.10879742,37.8407000458,101,7899178.15524,-1.2659544833e-07
1351032.96822255,7223892.00875485,37.8736000458,101,9249750.48832,-1.0811102432e-07
1351032.86814586,7223892.20883999,37.8357000458,101,9249750.57151,-1.08111023348e-07
1351032.96822255,7223892.10879742,37.8866000458,101,7899178.29441,-1.26595446099e-07
1351032.96822255,7223892.20883999,37.8527000458,101,3611946.10442,-2.76859059103e-07
1351032.96822255,7223892.30888257,37.8296000458,101,7899178.51933,-1.26595442495e-07
1351033.06829924,7223892.20883999,37.8796000458,101,9249751.00037,-1.08111018335e-07
1351032.96822255,7223892.40892514,37.8366000458,101,9249750.99766,-1.08111018367e-07
1351033.06829924,7223892.30888257,37.8407000458,101,7899178.55782,-1.26595441878e-07
1351033.06829924,7223892.40892514,37.8286000458,101,7899178.58511,-1.26595441441e-07
1351033.16837593,7223892.30888257,37.9126000458,101,9249751.16851,-1.0811101637e-07
1351033.06829924,7223892.50896771,37.8607000458,101,9249751.17502,-1.08111016294e-07
1351033.16837593,7223892.40892514,37.8987000458,101,7899178.7152,-1.26595439356e-07
1351033.16837593,7223892.50896771,37.8696000458,101,3611946.25448,-2.768590476e-07
1351033.16837593,7223892.60901028,37.8297000458,101,7899178.91951,-1.26595436081e-07
1351033.26845261,7223892.50896771,37.9067000458,101,7899178.94908,-1.26595435608e-07
1351033.26845261,7223892.60901028,37.8327000458,101,7899178.85828,-1.26595437063e-07
1351033.3685293,7223892.50896771,37.8836000458,101,9249751.63201,-1.08111010953e-07
1351033.26845261,7223892.70905285,37.8126000458,101,9249751.67937,-1.08111010399e-07
1351033.3685293,7223892.60901028,37.8926000458,101,7899179.01051,-1.26595434623e-07
1351033.3685293,7223892.70905285,37.8497000458,101,3611946.35453,-2.76859039932e-07
1351033.3685293,7223892.80909542,37.8256000458,101,7899179.11665,-1.26595432922e-07
1351033.46860599,7223892.70905285,37.8866000458,101,7899179.18967,-1.26595431752e-07
1351033.46860599,7223892.80909542,37.8826000458,101,3611946.40455,-2.76859036098e-07
1351033.46860599,7223892.90913799,37.8756000458,101,7899179.33551,-1.26595429414e-07
1351033.56868267,7223892.80909542,37.8966000458,101,9249752.4354,-1.08111001563e-07
1351033.46860599,7223893.00918056,37.8506000458,101,9249752.48957,-1.0811100093e-07
1351033.56868267,7223892.90913799,37.8856000458,101,7899179.48084,-1.26595427085e-07
1351033.56868267,7223893.00918056,37.8187000458,101,3611946.50459,-2.76859028429e-07
1351033.56868267,7223893.10922314,37.8116000458,101,7899179.62756,-1.26595424734e-07
1351033.66875936,7223893.00918056,37.8666000458,101,7899179.66775,-1.2659542409e-07
1351033.66875936,7223893.10922314,37.8257000458,101,7899179.66176,-1.26595424186e-07
1351033.76883605,7223893.00918056,37.8806000458,101,9249752.88398,-1.0811099632e-07
1351033.66875936,7223893.20926571,37.8106000458,101,9249752.85666,-1.08110996639e-07
1351033.76883605,7223893.10922314,37.8936000458,101,7899179.72713,-1.26595423138e-07
1351033.76883605,7223893.20926571,37.8407000458,101,7899179.73682,-1.26595422983e-07
1351033.86891274,7223893.10922314,37.8616000458,101,9249752.97925,-1.08110995206e-07
1351033.76883605,7223893.30930828,37.8196000458,101,9249753.02949,-1.08110994619e-07
1351033.86891274,7223893.20926571,37.8826000458,101,7899179.89255,-1.26595420487e-07
1351033.86891274,7223893.30930828,37.8736000458,101,3611946.65465,-2.76859016927e-07
1351033.86891274,7223893.40935085,37.8736000458,101,7899180.04416,-1.26595418057e-07
1351033.96898942,7223893.30930828,37.8996000458,101,9249753.5141,-1.08110988955e-07
1351033.86891274,7223893.50939342,37.8166000458,101,9249753.58748,-1.08110988097e-07
1351033.96898942,7223893.40935085,37.8806000458,101,7899180.1889,-1.26595415738e-07
1351033.96898942,7223893.50939342,37.7896000458,101,7899180.12261,-1.265954168e-07
1351034.06906611,7223893.40935085,37.8736000458,101,9249753.60551,-1.08110987887e-07
1351033.96898942,7223893.60943599,37.8066000458,101,9249753.63871,-1.08110987499e-07
1351034.06906611,7223893.50939342,37.8976000458,101,7899180.30815,-1.26595413826e-07
1351034.06906611,7223893.60943599,37.8307000458,101,7899180.26652,-1.26595414494e-07
1351034.1691428,7223893.50939342,37.8906000458,101,9249753.83139,-1.08110985247e-07
